0.262547 0.703968 -0.020221 
0.298740 0.683248 -0.078590 
0.275655 0.680122 -0.073185 
0.226047 0.719233 -0.007546 
0.242708 0.718012 -0.011509 
0.148451 0.638781 0.015886 
0.156951 0.618323 -0.025247 
0.161375 0.626470 -0.027591 
0.120451 0.581056 0.059293 
0.123420 0.594029 0.064327 
0.142442 0.582901 0.002674 
0.145428 0.598100 -0.002560 
0.125913 0.587362 0.053721 
0.126527 0.595741 0.059153 
0.090222 0.510021 0.069244 
0.030247 0.751600 0.056454 
0.259605 0.733280 -0.013644 
0.260679 0.716827 -0.014179 
0.231877 0.684908 -0.074954 
0.234507 0.678340 -0.069293 
0.251869 0.682429 -0.074889 
-0.012996 0.193071 -0.099968 
-0.015526 0.203521 -0.112319 
0.247436 0.690288 -0.080706 
0.112573 0.636035 -0.101055 
0.096071 0.626977 -0.104101 
0.108180 0.614171 -0.096883 
0.121803 0.624577 -0.093979 
0.218350 0.760971 -0.075233 
0.222619 0.766717 -0.068034 
0.206225 0.770930 -0.067145 
0.204388 0.762382 -0.075597 
0.227654 0.772286 -0.057201 
0.233127 0.774520 -0.042439 
0.214351 0.782730 -0.038950 
0.209227 0.778942 -0.055529 
0.144171 0.250064 -0.078345 
0.157677 0.246248 -0.052676 
0.118033 0.372661 0.018174 
0.104271 0.365819 0.031171 
0.087386 0.282928 0.041382 
0.034252 0.158500 0.027641 
0.017622 0.150384 0.009409 
0.007361 0.079480 -0.043068 
0.164254 0.240192 -0.026615 
0.013266 0.047740 -0.052567 
0.020383 0.014438 -0.062073 
0.054094 0.018198 -0.116433 
0.077283 0.015855 -0.122707 
0.073522 0.048108 -0.121238 
0.047041 0.052508 -0.113354 
0.100991 0.012309 -0.119497 
0.100280 0.043293 -0.118659 
0.104386 -0.088763 0.002878 
0.107065 -0.315973 -0.197874 
0.125197 -0.356581 -0.199023 
0.126398 -0.315927 -0.191968 
0.107805 -0.355407 -0.204326 
0.142059 -0.319512 -0.179040 
0.140370 -0.283717 -0.168050 
0.138159 -0.381278 -0.123180 
0.107473 -0.396097 -0.208711 
0.123145 -0.399076 -0.204214 
0.136306 -0.401421 -0.194007 
0.139869 -0.359281 -0.186717 
0.005604 0.134073 -0.014113 
0.152843 0.152097 0.020269 
0.150246 0.186095 0.023502 
0.099924 0.200205 0.046848 
0.075928 0.186550 0.047576 
0.088850 0.432471 0.043074 
0.103809 0.435535 0.031387 
0.109807 0.473849 0.036289 
0.120949 0.478628 0.021258 
0.117848 0.458935 0.018575 
0.106320 0.453789 0.033325 
0.132656 0.489346 -0.015146 
0.129673 0.495138 -0.035532 
0.126067 0.475889 -0.035726 
0.128887 0.470349 -0.016539 
0.123591 0.458471 -0.035785 
0.114516 0.463594 -0.052433 
0.058127 0.507705 -0.091182 
0.074428 0.501878 -0.086309 
0.077634 0.523935 -0.087942 
0.060816 0.530935 -0.092186 
0.034439 0.218939 0.059494 
0.008376 0.149275 -0.004614 
0.075831 0.110354 0.041919 
0.104514 0.140778 0.048112 
0.131325 0.144547 0.040173 
0.232706 0.677522 -0.039223 
0.149415 0.648447 -0.081243 
0.146955 0.658397 -0.084964 
0.248010 0.764961 -0.061335 
0.253845 0.765647 -0.047504 
0.243034 0.702982 -0.016321 
0.207451 0.763270 -0.002368 
0.210426 0.740617 0.001406 
0.197106 0.744347 0.010707 
0.115218 0.269608 0.034082 
0.143101 0.251781 0.024757 
0.121316 0.242324 0.036806 
-0.003029 0.167212 -0.058680 
0.054619 0.171620 0.041608 
0.026172 -0.018588 -0.069436 
0.030357 -0.050013 -0.076887 
0.033395 -0.079673 -0.084800 
0.035801 -0.108493 -0.093905 
0.037470 -0.137265 -0.105034 
0.042610 -0.165831 -0.116187 
0.052372 -0.196037 -0.124779 
0.059665 -0.227102 -0.136571 
0.053146 -0.295936 -0.152630 
0.058699 -0.291728 -0.166495 
0.060476 -0.258563 -0.151936 
0.057753 -0.326117 -0.179351 
0.060586 -0.361309 -0.188841 
0.066992 -0.399943 -0.194557 
0.073422 -0.479617 -0.210229 
0.071461 -0.439769 -0.201574 
-0.002375 0.167411 -0.040120 
-0.003020 0.167374 -0.049177 
0.105972 0.756897 0.020922 
0.162415 0.640239 -0.016666 
0.169501 0.646371 -0.020478 
0.225829 0.702350 -0.012318 
0.287010 0.731407 -0.089218 
0.281820 0.745930 -0.082735 
0.243220 0.692040 -0.024600 
0.185716 0.672106 -0.018930 
0.177814 0.667624 -0.013355 
0.547675 0.745612 -0.063743 
0.544815 0.749781 -0.075377 
0.567121 0.746781 -0.074608 
0.569283 0.741929 -0.064167 
0.549683 0.736520 -0.055171 
0.570734 0.732919 -0.057018 
0.552110 0.683761 -0.074911 
0.551233 0.690804 -0.063831 
0.572599 0.692405 -0.068871 
0.573277 0.686550 -0.079896 
0.592185 0.719852 -0.056301 
0.592226 0.710005 -0.059184 
0.571575 0.711043 -0.055265 
0.571564 0.722180 -0.053635 
0.549315 0.687219 -0.101917 
0.546026 0.696296 -0.110506 
0.525292 0.691537 -0.107471 
0.528888 0.682625 -0.097384 
0.465143 0.685027 -0.049242 
0.467246 0.675697 -0.059004 
0.449626 0.677131 -0.051598 
0.446983 0.687786 -0.043160 
0.503559 0.752396 -0.062583 
0.499597 0.753849 -0.076247 
0.522242 0.752136 -0.075890 
0.525687 0.748986 -0.063184 
0.507182 0.717539 -0.044047 
0.506726 0.703278 -0.047632 
0.483877 0.706388 -0.045097 
0.483798 0.720762 -0.042271 
0.481050 0.755473 -0.063135 
0.477428 0.753790 -0.076557 
0.550659 0.712612 -0.050609 
0.550585 0.700843 -0.055852 
0.528989 0.701418 -0.050972 
0.529436 0.714672 -0.046594 
0.590561 0.696166 -0.106032 
0.588036 0.704932 -0.112126 
0.567007 0.700841 -0.111817 
0.570018 0.691789 -0.104689 
0.592615 0.701506 -0.065121 
0.593397 0.694165 -0.073122 
0.571726 0.701095 -0.060992 
0.586057 0.743340 -0.095991 
0.587427 0.745807 -0.084951 
0.564723 0.747427 -0.086709 
0.562921 0.743525 -0.098574 
0.508393 0.680955 -0.062514 
0.507198 0.690593 -0.053418 
0.529545 0.689912 -0.058071 
0.530459 0.681974 -0.068884 
0.505919 0.744042 -0.051533 
0.528089 0.740127 -0.053267 
0.540022 0.742960 -0.100724 
0.541812 0.748674 -0.088038 
0.519256 0.748559 -0.088695 
0.517358 0.741082 -0.102024 
0.495286 0.726016 -0.111220 
0.497074 0.711808 -0.113109 
0.518494 0.716602 -0.114001 
0.517059 0.730220 -0.110902 
0.486218 0.682366 -0.056101 
0.487711 0.675205 -0.067716 
0.508075 0.678854 -0.091136 
0.504586 0.686783 -0.103106 
0.484256 0.682030 -0.097083 
0.487334 0.675273 -0.083131 
0.441636 0.739894 -0.041979 
0.440237 0.750933 -0.051495 
0.458876 0.751136 -0.050469 
0.460077 0.738792 -0.041838 
0.457337 0.756512 -0.063770 
0.436180 0.755692 -0.065689 
0.405181 0.744330 -0.079490 
0.405618 0.734439 -0.088107 
0.417418 0.735086 -0.088126 
0.418393 0.746487 -0.079413 
0.454233 0.714551 -0.112592 
0.456351 0.699322 -0.108963 
0.476336 0.705936 -0.111481 
0.474112 0.720852 -0.112419 
0.444428 0.680505 -0.095083 
0.449670 0.672679 -0.082090 
0.465527 0.676936 -0.089571 
0.460650 0.686654 -0.100724 
0.388226 0.679190 -0.073362 
0.387284 0.678546 -0.062003 
0.404058 0.674687 -0.064165 
0.404886 0.675888 -0.076872 
0.383544 0.688192 -0.039062 
0.382730 0.697020 -0.030190 
0.398872 0.695618 -0.032920 
0.400127 0.685922 -0.040773 
0.379429 0.745514 -0.042584 
0.378005 0.750528 -0.056588 
0.392030 0.750876 -0.055719 
0.394150 0.743194 -0.042470 
0.437858 0.708830 -0.111009 
0.437503 0.691792 -0.106176 
0.416222 0.682946 -0.042867 
0.414307 0.693296 -0.035387 
0.430510 0.690271 -0.038500 
0.432893 0.679435 -0.046172 
-0.013333 0.708284 -0.074746 
-0.013336 0.720106 -0.071193 
0.409367 0.717827 -0.033781 
0.409245 0.729172 -0.036535 
0.423943 0.728447 -0.038160 
0.425877 0.715003 -0.036715 
0.407611 0.742496 -0.042516 
0.405814 0.750744 -0.053768 
0.421471 0.751274 -0.052697 
0.423144 0.741443 -0.042426 
0.417428 0.714381 -0.101782 
0.419890 0.702578 -0.106113 
0.014012 0.360425 0.077735 
0.014324 0.371118 0.078309 
0.427677 0.705875 -0.108877 
0.425317 0.717709 -0.103644 
0.431848 0.677091 -0.087922 
0.435182 0.670523 -0.074889 
-0.016564 0.366832 -0.108572 
-0.015332 0.383139 -0.099921 
0.442343 0.712919 -0.040072 
0.445625 0.699717 -0.039974 
0.428415 0.702680 -0.035887 
0.419717 0.753598 -0.067011 
0.388791 0.683191 -0.083547 
0.388669 0.689074 -0.092485 
0.371121 0.689707 -0.089504 
0.371285 0.683749 -0.080653 
0.370223 0.680305 -0.070250 
0.368217 0.680512 -0.059281 
0.363692 0.689977 -0.036231 
0.362491 0.698389 -0.026642 
0.360879 0.711482 -0.021473 
0.358193 0.726941 -0.022505 
0.379108 0.725106 -0.027306 
0.381517 0.710024 -0.025751 
0.355493 0.752144 -0.056236 
0.355140 0.748757 -0.041394 
0.358540 0.748450 -0.069977 
0.378888 0.747874 -0.069028 
0.418513 0.674363 -0.053937 
0.011125 0.289934 0.066213 
0.010698 0.266260 0.064342 
0.402203 0.678480 -0.051327 
0.539310 0.733403 -0.110464 
0.540216 0.720735 -0.113998 
0.562480 0.723907 -0.113038 
0.562249 0.735329 -0.108474 
0.585855 0.715541 -0.113506 
0.564219 0.712102 -0.114322 
0.550703 0.725146 -0.050381 
0.529431 0.728221 -0.047287 
0.591365 0.729824 -0.058175 
0.441395 0.726235 -0.039197 
0.460450 0.723794 -0.040542 
0.406788 0.724371 -0.096179 
0.394482 0.733853 -0.088504 
0.396350 0.723972 -0.096401 
0.453204 0.729392 -0.103366 
0.453772 0.741074 -0.088957 
0.432622 0.734429 -0.090109 
0.436169 0.723399 -0.103671 
0.411683 0.700411 -0.102682 
0.409114 0.712752 -0.100366 
0.398687 0.711941 -0.099500 
0.400924 0.699465 -0.099893 
0.394889 0.731793 -0.034634 
0.379147 0.736207 -0.032794 
0.381622 0.733318 -0.089458 
0.380640 0.740942 -0.079647 
0.362711 0.741694 -0.081832 
0.364050 0.733197 -0.091081 
0.393347 0.742213 -0.078997 
0.383304 0.723461 -0.096404 
0.365597 0.722933 -0.096616 
0.355947 0.739825 -0.029572 
0.387014 0.699328 -0.097862 
0.385252 0.711594 -0.098839 
0.367405 0.711284 -0.098099 
0.369418 0.699334 -0.095930 
0.542674 0.708188 -0.114104 
0.521377 0.703746 -0.112555 
0.451434 0.670346 -0.066183 
0.468210 0.671488 -0.074304 
0.435234 0.671337 -0.058937 
0.551698 0.682480 -0.088797 
0.572331 0.686540 -0.093071 
0.509362 0.676211 -0.075858 
0.530676 0.678941 -0.082992 
0.495029 0.738311 -0.102543 
0.417363 0.681733 -0.091982 
0.419541 0.674959 -0.081705 
0.427295 0.683810 -0.098719 
0.365193 0.683825 -0.047337 
0.385541 0.681561 -0.049769 
0.428229 0.695449 -0.109279 
0.340081 0.685050 -0.044670 
0.433995 0.749184 -0.078834 
0.405034 0.750828 -0.067562 
0.392256 0.748961 -0.068241 
0.588938 0.744286 -0.073611 
0.507326 0.731534 -0.045125 
0.461196 0.709783 -0.042408 
0.463034 0.696666 -0.044515 
0.414348 0.689074 -0.100434 
0.403218 0.688671 -0.095709 
0.404488 0.682064 -0.086966 
0.394518 0.722228 -0.030861 
0.397348 0.708000 -0.029064 
0.592623 0.690916 -0.095786 
0.412330 0.705269 -0.032108 
0.455082 0.752131 -0.077348 
0.002382 0.722852 -0.075820 
0.139156 0.567621 0.007888 
0.113944 0.534718 0.048766 
0.124246 0.540592 0.035139 
0.151297 0.624124 -0.011122 
0.156246 0.633247 -0.013876 
0.179937 0.657055 -0.024457 
0.189433 0.663975 -0.027997 
0.141422 0.604494 0.012637 
0.024104 0.395520 0.074672 
0.027583 0.398732 -0.096372 
0.007429 0.398327 -0.095202 
0.008322 0.381900 -0.103267 
0.029865 0.382075 -0.104097 
0.009139 0.364468 -0.112760 
0.128917 0.332597 -0.085356 
0.124402 0.353293 -0.081568 
0.109143 0.351990 -0.099473 
0.112546 0.330014 -0.104979 
0.130170 0.368648 -0.057944 
0.118173 0.370456 -0.077336 
0.136126 0.352265 -0.060296 
0.142991 0.347746 -0.037730 
0.136991 0.364665 -0.036487 
0.143228 0.339865 -0.016714 
0.137617 0.357847 -0.015753 
0.137787 0.330706 0.002276 
0.125480 0.321965 0.018401 
0.110626 0.293708 0.031057 
0.086906 0.306490 0.040549 
0.106753 0.313888 0.030744 
0.050201 0.296303 0.054516 
0.067439 0.300553 0.048111 
0.022927 0.291084 0.063523 
0.035866 0.293226 0.059469 
0.104060 0.737945 0.034712 
0.080497 0.791118 -0.052851 
0.092564 0.797080 -0.034968 
0.068392 0.795107 -0.048665 
0.096613 0.742691 -0.092786 
0.099347 0.760408 -0.083402 
0.078799 0.751878 -0.089405 
0.076440 0.735832 -0.096335 
0.056628 0.787148 -0.059384 
0.050848 0.789007 -0.056237 
0.065442 0.781388 -0.065169 
0.033574 0.765282 -0.072759 
0.049969 0.772650 -0.072118 
0.132738 0.794351 -0.040890 
0.129629 0.781358 -0.060957 
0.139798 0.781584 -0.057831 
0.144545 0.796150 -0.039238 
0.126012 0.733417 -0.090479 
0.124930 0.717704 -0.093505 
0.136804 0.720966 -0.090053 
0.136768 0.736135 -0.087423 
0.173465 0.794492 -0.034918 
0.168475 0.786962 -0.053609 
0.179664 0.786377 -0.053628 
0.184936 0.792019 -0.035491 
0.136366 0.751604 -0.081222 
0.066986 0.634076 -0.108484 
0.103231 0.648333 -0.105731 
0.085876 0.641701 -0.108302 
0.143769 0.669204 -0.087854 
0.132315 0.663585 -0.093302 
0.136157 0.651662 -0.090272 
0.166257 0.678464 -0.079713 
0.155063 0.674359 -0.083376 
0.197690 0.719586 0.008889 
0.186082 0.720072 0.019349 
0.184158 0.748689 0.016985 
0.183310 0.674434 -0.068983 
0.194937 0.680909 -0.069178 
0.191924 0.685853 -0.071775 
0.179989 0.679778 -0.071889 
0.120972 0.793600 -0.041834 
0.166334 0.773775 -0.067156 
0.165129 0.760548 -0.076582 
0.176988 0.762613 -0.077093 
0.177951 0.775275 -0.067960 
0.166711 0.746381 -0.083426 
0.168233 0.731227 -0.086346 
0.180504 0.735387 -0.086030 
0.178664 0.749378 -0.083153 
0.190344 0.691876 -0.075758 
0.176202 0.686234 -0.075104 
0.203726 0.781624 -0.016945 
0.157587 0.798199 -0.013083 
0.157995 0.784589 0.009259 
0.147923 0.787882 0.009013 
0.147176 0.799158 -0.014264 
0.216022 0.669418 -0.043330 
0.212094 0.673273 -0.034388 
0.218427 0.667554 -0.051248 
0.186941 0.663961 -0.063542 
0.219278 0.668711 -0.057870 
0.209607 0.701418 -0.007884 
0.210843 0.719129 -0.001681 
0.158598 0.760249 0.021501 
0.148338 0.765061 0.021881 
0.198461 0.788146 -0.036801 
0.193390 0.783578 -0.054345 
0.211901 0.688594 -0.074921 
0.224065 0.695483 -0.080874 
0.208578 0.692718 -0.077165 
0.171666 0.653526 -0.069359 
0.185920 0.669576 -0.066021 
0.154467 0.796812 -0.037262 
0.190868 0.773921 -0.067042 
0.190207 0.762552 -0.077143 
0.156315 0.742095 -0.083767 
0.155046 0.756732 -0.076956 
0.145811 0.753498 -0.078614 
0.146570 0.738767 -0.085180 
0.193261 0.740358 -0.086059 
0.196718 0.726599 -0.086718 
0.157307 0.727195 -0.086536 
0.147076 0.723990 -0.087715 
0.205846 0.698598 -0.079985 
0.139034 0.767811 0.021567 
0.139489 0.743310 0.028626 
0.129688 0.743224 0.030074 
0.160563 0.733081 0.028237 
0.149036 0.739416 0.028373 
0.174018 0.724673 0.025763 
0.118387 0.740290 0.031534 
0.423050 0.691673 -0.106078 
0.235487 0.702637 -0.084972 
0.228420 0.691205 -0.079034 
0.241309 0.697416 -0.083742 
0.288599 0.719840 -0.091323 
0.416088 0.724983 -0.096114 
0.423950 0.725314 -0.096361 
0.473747 0.734474 -0.102782 
0.496706 0.747885 -0.089035 
0.475047 0.745647 -0.088883 
0.483048 0.748166 -0.050080 
0.484090 0.735389 -0.042886 
0.484553 0.693311 -0.049343 
0.479914 0.693011 -0.105792 
0.632423 0.734034 -0.061499 
0.631904 0.740259 -0.069873 
0.653299 0.738240 -0.067951 
0.653540 0.730905 -0.060879 
0.673668 0.718485 -0.058095 
0.653694 0.721801 -0.058917 
0.674227 0.728354 -0.057867 
0.672771 0.710719 -0.063094 
0.653219 0.713823 -0.062169 
0.672029 0.705573 -0.070304 
0.672498 0.701114 -0.077728 
0.653488 0.701575 -0.074915 
0.652941 0.707023 -0.067906 
0.654086 0.699076 -0.083205 
0.653945 0.699982 -0.092140 
0.633905 0.696304 -0.089738 
0.633966 0.697454 -0.079971 
0.672699 0.713585 -0.105919 
0.672027 0.721518 -0.106849 
0.651571 0.717850 -0.109163 
0.652496 0.709353 -0.107212 
0.629445 0.732237 -0.106598 
0.629493 0.722946 -0.109990 
0.651222 0.727072 -0.107732 
0.651114 0.735746 -0.104970 
0.671438 0.739596 -0.104488 
0.671871 0.743931 -0.096296 
0.651733 0.740730 -0.098210 
0.590359 0.738629 -0.064081 
0.611420 0.736479 -0.062881 
0.612171 0.727444 -0.058118 
0.612516 0.708904 -0.062510 
0.612334 0.717634 -0.058658 
0.632881 0.715557 -0.060277 
0.632959 0.707767 -0.065092 
0.593582 0.689852 -0.084023 
0.613597 0.695936 -0.076839 
0.613799 0.693213 -0.087084 
0.633437 0.701631 -0.071657 
0.612965 0.701662 -0.068745 
0.633046 0.698746 -0.099587 
0.653329 0.703378 -0.100866 
0.631579 0.742466 -0.080277 
0.631059 0.742356 -0.090667 
0.652643 0.742125 -0.088298 
0.653067 0.741351 -0.077922 
0.612920 0.695004 -0.097598 
0.608916 0.743091 -0.093219 
0.609764 0.744301 -0.082631 
0.630152 0.739131 -0.100149 
0.608076 0.737664 -0.102652 
0.673422 0.741557 -0.075115 
0.674102 0.737020 -0.064930 
0.610526 0.742336 -0.071799 
0.631784 0.704580 -0.107488 
0.630345 0.713353 -0.111008 
0.609205 0.709038 -0.111766 
0.611209 0.700300 -0.106831 
0.584781 0.726381 -0.111272 
0.607725 0.718996 -0.111788 
0.607394 0.729057 -0.108845 
0.671741 0.730665 -0.106584 
0.585337 0.736412 -0.105625 
0.756869 0.694083 -0.064170 
0.765898 0.696753 -0.060288 
0.760900 0.700754 -0.066028 
0.750554 0.699578 -0.067075 
0.733013 0.674058 -0.065109 
0.745481 0.668776 -0.062057 
0.752002 0.673085 -0.068359 
0.740535 0.679666 -0.071550 
0.762916 0.688632 -0.061671 
0.769979 0.693758 -0.055852 
0.777046 0.698606 -0.050279 
0.769289 0.692393 -0.053136 
0.776337 0.702419 -0.045355 
0.770320 0.711352 -0.042449 
0.783184 0.716576 -0.042436 
0.784119 0.707140 -0.042671 
0.765079 0.731555 -0.061562 
0.763322 0.735022 -0.072402 
0.779530 0.735244 -0.071574 
0.780576 0.730336 -0.060996 
0.772518 0.734134 -0.091639 
0.777104 0.733970 -0.081329 
0.760829 0.735051 -0.081411 
0.757391 0.734589 -0.090503 
0.746419 0.703885 -0.073250 
0.757127 0.704075 -0.073012 
0.756183 0.705315 -0.079045 
0.745152 0.705059 -0.080118 
0.767542 0.696199 -0.047907 
0.770950 0.683294 -0.053692 
0.769426 0.684315 -0.049867 
0.761869 0.696226 -0.044624 
0.708830 0.699237 -0.089865 
0.720381 0.698151 -0.091385 
0.721932 0.698948 -0.098786 
0.708955 0.700146 -0.097858 
0.706967 0.693089 -0.071531 
0.700892 0.698999 -0.060738 
0.708680 0.692146 -0.056782 
0.713839 0.685862 -0.068851 
0.718560 0.683984 -0.054598 
0.729642 0.676369 -0.054242 
0.722950 0.679581 -0.066800 
0.743218 0.670742 -0.052874 
0.717906 0.704544 -0.110307 
0.707731 0.706102 -0.107385 
0.821132 0.689939 -0.057107 
0.821336 0.689581 -0.051256 
0.824051 0.687102 -0.052055 
0.824019 0.687623 -0.057800 
0.707642 0.731557 -0.107457 
0.707141 0.722881 -0.110650 
0.715270 0.723817 -0.112069 
0.715989 0.731753 -0.106864 
0.725192 0.725248 -0.114166 
0.726095 0.732582 -0.106474 
0.827889 0.694896 -0.044847 
0.831464 0.698704 -0.045735 
0.835082 0.693190 -0.046816 
0.830932 0.690249 -0.046099 
0.771089 0.700722 -0.064301 
0.774964 0.697642 -0.057077 
0.783570 0.698467 -0.053414 
0.790917 0.699314 -0.050749 
0.792838 0.699265 -0.056858 
0.782899 0.700599 -0.061810 
0.769392 0.704919 -0.074544 
0.781055 0.704377 -0.073707 
0.777250 0.706394 -0.080863 
0.766194 0.706528 -0.081960 
0.773665 0.707283 -0.100700 
0.764958 0.706127 -0.101041 
0.764276 0.706586 -0.094738 
0.774674 0.707255 -0.093702 
0.802520 0.709849 -0.090048 
0.793421 0.709217 -0.091136 
0.794356 0.708694 -0.085860 
0.802720 0.708967 -0.085076 
0.698785 0.732576 -0.107718 
0.698747 0.723307 -0.109416 
0.771998 0.724496 -0.121077 
0.775685 0.731329 -0.113184 
0.764789 0.731189 -0.110726 
0.760791 0.725320 -0.118208 
0.717826 0.737236 -0.098716 
0.709025 0.738278 -0.100289 
0.834835 0.701995 -0.049396 
0.837872 0.696433 -0.050909 
0.728733 0.687737 -0.044588 
0.743799 0.677765 -0.044604 
0.716644 0.697685 -0.047317 
0.700727 0.709770 -0.054260 
0.708525 0.704864 -0.051585 
0.788382 0.702046 -0.065863 
0.765554 0.703642 -0.070897 
0.755091 0.705690 -0.083934 
0.748799 0.702924 -0.105561 
0.756335 0.704347 -0.106847 
0.754510 0.705665 -0.114206 
0.746118 0.705213 -0.114984 
0.770441 0.710507 -0.119376 
0.770121 0.716647 -0.123069 
0.760276 0.716847 -0.121910 
0.762119 0.709954 -0.119219 
0.768063 0.682952 -0.044841 
0.757019 0.692788 -0.041184 
0.707135 0.713751 -0.111099 
0.715762 0.714151 -0.113938 
0.698628 0.715104 -0.108196 
0.720390 0.694673 -0.081495 
0.733253 0.701715 -0.081100 
0.732619 0.701932 -0.086231 
0.719653 0.697322 -0.086479 
0.741395 0.694539 -0.071283 
0.731098 0.685632 -0.073545 
0.749282 0.688238 -0.069614 
0.707787 0.697102 -0.082207 
0.698388 0.700215 -0.080327 
0.698860 0.702343 -0.088725 
0.698899 0.704535 -0.097047 
0.698885 0.709039 -0.104634 
0.687825 0.700930 -0.079406 
0.688576 0.702325 -0.087645 
0.688802 0.705628 -0.095910 
0.688806 0.709687 -0.102627 
0.699102 0.740594 -0.101601 
0.686981 0.741559 -0.103535 
0.687274 0.732376 -0.107568 
0.698523 0.700075 -0.071345 
0.687800 0.703226 -0.071259 
0.689018 0.706562 -0.061591 
0.689934 0.715319 -0.056340 
0.768959 0.671911 -0.062362 
0.763857 0.675816 -0.065207 
0.759029 0.669293 -0.064298 
0.765408 0.666026 -0.060152 
0.791222 0.702339 -0.045370 
0.783840 0.701470 -0.046934 
0.792711 0.708629 -0.042071 
0.731642 0.700347 -0.103275 
0.728137 0.704795 -0.113125 
0.795709 0.701154 -0.061751 
0.808971 0.703489 -0.043512 
0.812354 0.709090 -0.043829 
0.825016 0.703185 -0.045051 
0.821608 0.698488 -0.044383 
0.807541 0.698826 -0.060440 
0.811331 0.703475 -0.062946 
0.804864 0.704815 -0.063883 
0.801360 0.700738 -0.060441 
0.799126 0.709500 -0.097029 
0.791271 0.708987 -0.097967 
0.794553 0.725970 -0.048418 
0.781076 0.726818 -0.048632 
0.796165 0.725517 -0.061357 
0.784524 0.708077 -0.092514 
0.775517 0.707135 -0.087605 
0.785401 0.707675 -0.086971 
0.796303 0.705304 -0.070483 
0.789211 0.704518 -0.072765 
0.791998 0.703221 -0.067815 
0.797602 0.703573 -0.065479 
0.748354 0.726113 -0.116923 
0.748268 0.715231 -0.121453 
0.824092 0.691355 -0.046944 
0.826897 0.687974 -0.048163 
0.687930 0.722865 -0.107298 
0.688560 0.715329 -0.106088 
0.764618 0.706807 -0.088248 
0.766734 0.725110 -0.049996 
0.754002 0.705637 -0.089294 
0.799312 0.717473 -0.104553 
0.801104 0.722867 -0.101600 
0.792367 0.726241 -0.101290 
0.792092 0.719623 -0.106666 
0.823554 0.692883 -0.061104 
0.827651 0.696996 -0.062695 
0.821826 0.700032 -0.062304 
0.818467 0.695342 -0.060706 
0.804923 0.696167 -0.050960 
0.805531 0.696163 -0.056252 
0.798517 0.698733 -0.056147 
0.797176 0.698702 -0.050608 
0.798041 0.701697 -0.045831 
0.806278 0.699303 -0.046331 
0.815874 0.714115 -0.055202 
0.815200 0.709640 -0.060934 
0.826190 0.705081 -0.061142 
0.828715 0.707657 -0.055453 
0.742976 0.736013 -0.089692 
0.740496 0.734734 -0.098780 
0.754639 0.733402 -0.100078 
0.768895 0.732471 -0.101761 
0.782093 0.729506 -0.103269 
0.786609 0.733639 -0.092568 
0.751654 0.731383 -0.108102 
0.805448 0.720211 -0.066380 
0.805569 0.714164 -0.066171 
0.806037 0.718483 -0.057925 
0.753244 0.705243 -0.096907 
0.818342 0.694427 -0.046714 
0.712050 0.729370 -0.057600 
0.712488 0.738028 -0.067838 
0.723453 0.736826 -0.067027 
0.721524 0.725728 -0.054969 
0.816579 0.692224 -0.056605 
0.816169 0.691598 -0.051289 
0.799163 0.712402 -0.106139 
0.793305 0.711250 -0.108445 
0.791027 0.709687 -0.104322 
0.798310 0.710253 -0.102487 
0.738213 0.732652 -0.106682 
0.783281 0.728622 -0.116013 
0.780743 0.720390 -0.123266 
0.719558 0.739404 -0.088643 
0.727941 0.736304 -0.098244 
0.730036 0.737892 -0.088993 
0.793877 0.729630 -0.081565 
0.745974 0.736669 -0.081467 
0.732528 0.738245 -0.080859 
0.721040 0.739666 -0.079479 
0.711284 0.741131 -0.079458 
0.710335 0.740989 -0.089293 
0.835468 0.702879 -0.056195 
0.827929 0.706875 -0.048700 
0.699745 0.743001 -0.090482 
0.687215 0.744951 -0.093508 
0.700748 0.742751 -0.080282 
0.688069 0.743826 -0.083171 
0.734728 0.737538 -0.072127 
0.736157 0.733530 -0.062469 
0.748247 0.736189 -0.072906 
0.750509 0.732701 -0.062630 
0.794861 0.734094 -0.070769 
0.831812 0.692571 -0.063760 
0.837600 0.686251 -0.065739 
0.841463 0.687445 -0.063438 
0.836247 0.694753 -0.061986 
0.832184 0.700452 -0.061307 
0.838609 0.696483 -0.057604 
0.752292 0.724317 -0.050564 
0.803136 0.706333 -0.068792 
0.736042 0.719840 -0.049201 
0.757361 0.711869 -0.041284 
0.747184 0.706234 -0.039917 
0.718070 0.711797 -0.046477 
0.729820 0.702343 -0.040808 
0.702089 0.721143 -0.054219 
0.710049 0.717520 -0.051965 
0.690719 0.725181 -0.055809 
0.743191 0.690706 -0.039245 
0.827703 0.681624 -0.054925 
0.828221 0.682770 -0.060673 
0.690575 0.735272 -0.061455 
0.702880 0.731858 -0.059037 
0.757926 0.681347 -0.067678 
0.743470 0.704475 -0.089838 
0.742759 0.703280 -0.096013 
0.740911 0.701769 -0.104515 
0.737754 0.705183 -0.114936 
0.689390 0.741901 -0.071787 
0.673341 0.700857 -0.086007 
0.673344 0.703837 -0.094362 
0.672586 0.743554 -0.085960 
0.830584 0.682135 -0.050568 
0.807220 0.713081 -0.085799 
0.807191 0.714360 -0.087915 
0.754572 0.666152 -0.058578 
0.762422 0.663894 -0.054768 
0.753069 0.667474 -0.050309 
0.754260 0.672923 -0.042678 
0.763933 0.670025 -0.042884 
0.762653 0.665365 -0.049105 
0.732643 0.701384 -0.090698 
0.732892 0.700947 -0.096158 
0.736472 0.715683 -0.120134 
0.736274 0.726334 -0.115754 
0.800270 0.707140 -0.042696 
0.794252 0.716834 -0.042550 
0.802572 0.713353 -0.043611 
0.814172 0.713971 -0.048115 
0.808190 0.711294 -0.062706 
0.806326 0.709740 -0.066282 
0.724467 0.690604 -0.077010 
0.736028 0.699361 -0.075174 
0.766527 0.683469 -0.060568 
0.770638 0.679264 -0.059772 
0.786563 0.706296 -0.079848 
0.806603 0.724128 -0.079476 
0.805651 0.727020 -0.071637 
0.794873 0.707321 -0.078353 
0.839455 0.685144 -0.049471 
0.834798 0.682992 -0.048806 
0.804099 0.719574 -0.048264 
0.782842 0.708240 -0.099534 
0.802723 0.723873 -0.086554 
0.808165 0.718755 -0.083569 
0.776627 0.714933 -0.122922 
0.702327 0.739794 -0.068909 
0.831532 0.684583 -0.065105 
0.826823 0.689740 -0.062607 
0.842913 0.688438 -0.059448 
0.842010 0.687966 -0.053713 
0.725767 0.715164 -0.117383 
0.744312 0.704989 -0.085163 
0.673104 0.707791 -0.101576 
0.765800 0.677421 -0.040885 
0.755353 0.682621 -0.040366 
0.801508 0.707651 -0.077167 
0.787852 0.725147 -0.109732 
0.805164 0.726364 -0.095357 
0.808320 0.723117 -0.089499 
0.796416 0.729947 -0.093900 
0.809925 0.717922 -0.088353 
0.846599 0.681766 -0.061607 
0.845628 0.681093 -0.055966 
0.842691 0.678678 -0.051904 
0.837457 0.677700 -0.051111 
0.833166 0.677562 -0.052950 
0.844638 0.681176 -0.065470 
0.840739 0.680629 -0.067596 
0.834559 0.680220 -0.066649 
0.846196 0.675752 -0.067874 
0.849052 0.674601 -0.064186 
0.847276 0.668777 -0.057176 
0.847533 0.664795 -0.058207 
0.844485 0.665166 -0.056077 
0.845087 0.671254 -0.054565 
0.844959 0.660320 -0.058645 
0.848395 0.660360 -0.060157 
0.848988 0.670891 -0.059468 
0.850110 0.666237 -0.061454 
0.851019 0.662874 -0.067234 
0.851136 0.661392 -0.063498 
0.849926 0.667499 -0.065304 
0.849486 0.671143 -0.063091 
0.848325 0.674748 -0.058181 
0.851578 0.657335 -0.065079 
0.848822 0.655851 -0.066549 
0.846355 0.656757 -0.061892 
0.849203 0.657366 -0.061821 
0.839352 0.672435 -0.053622 
0.840576 0.665972 -0.056352 
0.841472 0.660830 -0.059638 
0.843105 0.657298 -0.063196 
0.838937 0.661337 -0.061947 
0.837308 0.666285 -0.058666 
0.840740 0.658718 -0.065102 
0.837837 0.661955 -0.065040 
0.835501 0.666671 -0.062461 
0.832815 0.674081 -0.059032 
0.835114 0.673483 -0.055325 
0.839615 0.660002 -0.066510 
0.845804 0.656723 -0.067814 
0.849164 0.669428 -0.067974 
0.849635 0.664007 -0.069852 
0.846867 0.669964 -0.070109 
0.847414 0.664549 -0.071483 
0.851852 0.659406 -0.068183 
0.849999 0.659099 -0.070171 
0.830207 0.677932 -0.056968 
0.831104 0.679348 -0.062670 
0.833457 0.675401 -0.064613 
0.835884 0.667970 -0.067562 
0.836961 0.676194 -0.068501 
0.842405 0.675882 -0.069585 
0.843746 0.669758 -0.071193 
0.839523 0.669484 -0.070852 
0.841094 0.664066 -0.071544 
0.844198 0.664413 -0.072149 
0.838654 0.662812 -0.068778 
0.844159 0.660522 -0.071529 
0.847184 0.659649 -0.071262 
0.842017 0.661288 -0.071070 
0.840797 0.660209 -0.068924 
0.842893 0.658389 -0.068639 
0.827584 0.696514 -0.080733 
0.828182 0.696780 -0.075729 
0.831094 0.691188 -0.077750 
0.830177 0.691137 -0.083086 
0.835027 0.702075 -0.070980 
0.839589 0.706550 -0.072214 
0.842543 0.698822 -0.074227 
0.837690 0.694722 -0.073234 
0.841638 0.710301 -0.078312 
0.844517 0.702547 -0.080075 
0.814591 0.711051 -0.068124 
0.816278 0.716641 -0.068557 
0.832029 0.711964 -0.070368 
0.828490 0.706910 -0.069444 
0.810876 0.706635 -0.083580 
0.813583 0.709910 -0.086253 
0.830917 0.698801 -0.072629 
0.833627 0.692314 -0.074802 
0.828341 0.697869 -0.085364 
0.831338 0.700512 -0.088629 
0.825702 0.705528 -0.086906 
0.823138 0.702180 -0.084153 
0.810534 0.704263 -0.071420 
0.810121 0.704952 -0.077737 
0.812562 0.706974 -0.068699 
0.818141 0.720315 -0.080262 
0.816821 0.715630 -0.085036 
0.829719 0.710065 -0.087103 
0.833039 0.714374 -0.083324 
0.825206 0.703459 -0.070935 
0.822218 0.700589 -0.079128 
0.822852 0.700711 -0.073841 
0.839790 0.707799 -0.085673 
0.833274 0.715929 -0.076012 
0.834458 0.694504 -0.091109 
0.838346 0.686432 -0.093619 
0.842710 0.688320 -0.092506 
0.838829 0.696768 -0.090639 
0.835409 0.703588 -0.088674 
0.842748 0.700065 -0.087356 
0.834268 0.682576 -0.081254 
0.833328 0.683190 -0.086712 
0.837062 0.682956 -0.078070 
0.817863 0.721755 -0.072975 
0.845945 0.687765 -0.077900 
0.840978 0.684663 -0.077008 
0.834263 0.684568 -0.091507 
0.830959 0.692506 -0.087974 
0.846245 0.690178 -0.089346 
0.847744 0.690957 -0.083011 
0.848422 0.682151 -0.091240 
0.849930 0.682196 -0.085879 
0.848082 0.679634 -0.080845 
0.842808 0.678263 -0.079502 
0.838733 0.677966 -0.080462 
0.845108 0.681094 -0.094279 
0.840906 0.680413 -0.095283 
0.836549 0.679649 -0.093237 
0.844865 0.673690 -0.096084 
0.848666 0.673089 -0.093724 
0.847769 0.663495 -0.086937 
0.847546 0.658091 -0.088160 
0.844805 0.658351 -0.086178 
0.845990 0.664206 -0.084133 
0.848707 0.667677 -0.086356 
0.848063 0.670668 -0.083423 
0.849539 0.668979 -0.089355 
0.849361 0.664057 -0.090824 
0.848083 0.659378 -0.096112 
0.849469 0.658036 -0.092478 
0.847842 0.665015 -0.094144 
0.848493 0.669073 -0.092462 
0.844607 0.653556 -0.089372 
0.847354 0.654005 -0.089672 
0.850786 0.673769 -0.088057 
0.843255 0.672284 -0.081178 
0.842346 0.664968 -0.083097 
0.841411 0.658629 -0.086026 
0.841248 0.654162 -0.089842 
0.838268 0.659199 -0.087135 
0.838446 0.665384 -0.084123 
0.838805 0.655722 -0.090724 
0.836225 0.659954 -0.089829 
0.835400 0.666007 -0.087161 
0.836285 0.673999 -0.084920 
0.839124 0.673191 -0.081827 
0.837448 0.657248 -0.091627 
0.845861 0.651599 -0.094129 
0.842379 0.652756 -0.094341 
0.849376 0.652538 -0.093622 
0.846135 0.666119 -0.095631 
0.845681 0.659929 -0.097204 
0.844005 0.666562 -0.097443 
0.843599 0.660170 -0.098492 
0.848371 0.654873 -0.096992 
0.846032 0.654610 -0.097742 
0.836105 0.678113 -0.083605 
0.835164 0.678812 -0.088615 
0.835244 0.674828 -0.089845 
0.834888 0.666971 -0.092174 
0.836960 0.675259 -0.094233 
0.840995 0.674353 -0.096268 
0.840931 0.667351 -0.097756 
0.837240 0.667623 -0.096206 
0.837965 0.661688 -0.097177 
0.841020 0.661033 -0.098447 
0.835887 0.660942 -0.093817 
0.840723 0.656629 -0.097619 
0.843325 0.655205 -0.097978 
0.838593 0.658209 -0.096825 
0.837675 0.657275 -0.094312 
0.839715 0.654771 -0.094384 
0.820499 0.700565 -0.101556 
0.823201 0.701522 -0.097093 
0.824082 0.697069 -0.097584 
0.820900 0.696236 -0.102203 
0.830317 0.706626 -0.094811 
0.832608 0.710268 -0.096544 
0.834051 0.702177 -0.098529 
0.831799 0.699877 -0.096396 
0.833046 0.712816 -0.102526 
0.834506 0.703298 -0.103511 
0.815144 0.715336 -0.090645 
0.815789 0.720291 -0.091955 
0.827019 0.715728 -0.094664 
0.825494 0.711167 -0.092948 
0.826601 0.703555 -0.095074 
0.828202 0.698029 -0.096110 
0.819850 0.700824 -0.106143 
0.821255 0.702342 -0.109145 
0.816592 0.706552 -0.107730 
0.815653 0.704690 -0.105045 
0.806420 0.707983 -0.098156 
0.808980 0.708657 -0.093582 
0.812173 0.711357 -0.091353 
0.811258 0.720152 -0.103677 
0.808217 0.715216 -0.105924 
0.819701 0.710752 -0.108906 
0.823837 0.716067 -0.106633 
0.822215 0.707412 -0.093881 
0.816307 0.703073 -0.100342 
0.818766 0.704533 -0.095874 
0.829637 0.709981 -0.108348 
0.826018 0.718385 -0.100224 
0.822248 0.698029 -0.110513 
0.825598 0.689182 -0.111782 
0.829819 0.689867 -0.112073 
0.826943 0.699877 -0.111375 
0.824830 0.705722 -0.110438 
0.831417 0.702384 -0.108812 
0.825132 0.688837 -0.098976 
0.822479 0.688776 -0.103506 
0.829452 0.689094 -0.097710 
0.814401 0.722908 -0.097346 
0.805891 0.710482 -0.106050 
0.836215 0.690604 -0.100204 
0.833135 0.689629 -0.098047 
0.822390 0.689084 -0.108637 
0.820330 0.696802 -0.107068 
0.834296 0.691193 -0.109766 
0.836957 0.692183 -0.104836 
0.835505 0.682980 -0.110749 
0.838162 0.683235 -0.105793 
0.837327 0.682051 -0.100898 
0.833684 0.682374 -0.098779 
0.830053 0.683041 -0.098483 
0.830437 0.682638 -0.112394 
0.826761 0.683128 -0.111646 
0.824019 0.684261 -0.108732 
0.829132 0.677565 -0.112733 
0.833505 0.675983 -0.110601 
0.832785 0.667968 -0.102732 
0.831757 0.662843 -0.102826 
0.830590 0.663364 -0.100869 
0.832422 0.668672 -0.100624 
0.834634 0.671702 -0.103171 
0.835505 0.674579 -0.101641 
0.835139 0.672595 -0.106249 
0.833658 0.667940 -0.106619 
0.829860 0.664423 -0.109971 
0.832432 0.662811 -0.106809 
0.831061 0.669411 -0.109761 
0.833336 0.672876 -0.109247 
0.829529 0.659094 -0.102276 
0.831091 0.659390 -0.103489 
0.836731 0.676430 -0.106108 
0.832637 0.676386 -0.098878 
0.830201 0.670046 -0.098878 
0.828183 0.664397 -0.099508 
0.826523 0.660415 -0.101509 
0.825361 0.666056 -0.099750 
0.826979 0.671584 -0.098864 
0.824079 0.662512 -0.101676 
0.823030 0.667350 -0.101240 
0.823966 0.672872 -0.100301 
0.826063 0.679390 -0.100245 
0.829128 0.677952 -0.098728 
0.822845 0.664420 -0.102417 
0.828722 0.657736 -0.106544 
0.825245 0.659114 -0.106130 
0.831351 0.658548 -0.106945 
0.829437 0.670743 -0.111606 
0.827839 0.665339 -0.111425 
0.826585 0.671915 -0.112315 
0.825377 0.666246 -0.111793 
0.829770 0.660648 -0.109815 
0.827865 0.660778 -0.110342 
0.826544 0.683963 -0.100259 
0.824062 0.684492 -0.104134 
0.823803 0.680390 -0.103793 
0.821609 0.673625 -0.103961 
0.823463 0.680328 -0.108234 
0.825319 0.678446 -0.111230 
0.823757 0.672773 -0.111137 
0.821477 0.673632 -0.108251 
0.821082 0.668262 -0.108340 
0.822850 0.667318 -0.110703 
0.821048 0.667966 -0.104447 
0.822738 0.663423 -0.108963 
0.824987 0.661725 -0.110071 
0.821439 0.664998 -0.107677 
0.821772 0.664193 -0.104910 
0.822954 0.661629 -0.105342 
0.805506 0.709069 -0.102675 
0.807228 0.704632 -0.125410 
0.810017 0.705521 -0.122399 
0.811961 0.702867 -0.124624 
0.808817 0.702238 -0.127157 
0.815117 0.712002 -0.121250 
0.815813 0.715310 -0.123880 
0.818262 0.710226 -0.127290 
0.817836 0.707445 -0.124515 
0.813566 0.716492 -0.128785 
0.815851 0.711330 -0.131538 
0.797760 0.717970 -0.112169 
0.796051 0.722435 -0.114193 
0.809409 0.718512 -0.119996 
0.809134 0.714744 -0.117554 
0.791632 0.707703 -0.122793 
0.790696 0.710642 -0.126106 
0.783065 0.712074 -0.123216 
0.782027 0.709580 -0.119499 
0.812780 0.708499 -0.120738 
0.815269 0.704784 -0.123891 
0.805284 0.704946 -0.128835 
0.804520 0.706507 -0.132174 
0.800961 0.708980 -0.130817 
0.801523 0.706568 -0.127272 
0.794258 0.708500 -0.114717 
0.793594 0.707050 -0.119056 
0.784279 0.707726 -0.115397 
0.787989 0.708951 -0.111554 
0.796720 0.712209 -0.113072 
0.791011 0.719908 -0.126141 
0.790513 0.714799 -0.127354 
0.801671 0.713111 -0.132156 
0.804508 0.717619 -0.130272 
0.807965 0.710594 -0.118208 
0.802919 0.706467 -0.123237 
0.805878 0.707244 -0.120209 
0.809447 0.713725 -0.132644 
0.807220 0.720394 -0.124990 
0.806007 0.703433 -0.134103 
0.809214 0.698518 -0.137425 
0.811355 0.700260 -0.139282 
0.807941 0.706265 -0.136208 
0.806220 0.709873 -0.134081 
0.811726 0.709097 -0.135438 
0.815107 0.697707 -0.127656 
0.811345 0.697390 -0.129981 
0.818405 0.699113 -0.127302 
0.793185 0.724554 -0.119717 
0.822008 0.703033 -0.131154 
0.821132 0.700843 -0.128417 
0.809372 0.697622 -0.133611 
0.806824 0.702339 -0.130577 
0.814961 0.702375 -0.138634 
0.819277 0.704015 -0.135136 
0.817804 0.696879 -0.141121 
0.822771 0.698720 -0.137827 
0.824679 0.697938 -0.133547 
0.823340 0.696798 -0.130351 
0.820498 0.695756 -0.129084 
0.813432 0.695185 -0.141134 
0.811431 0.694326 -0.138708 
0.811784 0.694266 -0.134995 
0.815226 0.690655 -0.142188 
0.819829 0.691481 -0.142487 
0.826707 0.686979 -0.137135 
0.827958 0.683422 -0.137612 
0.827505 0.682864 -0.135859 
0.826731 0.687248 -0.135010 
0.825880 0.690507 -0.137339 
0.825596 0.692610 -0.135391 
0.824357 0.691231 -0.139841 
0.825869 0.687332 -0.140385 
0.823969 0.682372 -0.143495 
0.827455 0.683419 -0.141267 
0.822763 0.686392 -0.143228 
0.822331 0.689810 -0.142202 
0.828320 0.679220 -0.137500 
0.828991 0.680635 -0.138698 
0.823582 0.694193 -0.139248 
0.824175 0.692583 -0.132060 
0.825487 0.686921 -0.133066 
0.826390 0.681616 -0.134342 
0.826310 0.677934 -0.136517 
0.823962 0.681603 -0.133511 
0.822980 0.686864 -0.131928 
0.823969 0.678367 -0.135705 
0.821460 0.681913 -0.133637 
0.819889 0.686765 -0.131881 
0.818054 0.691883 -0.130485 
0.821453 0.692314 -0.130516 
0.822285 0.679319 -0.135197 
0.827067 0.677535 -0.140873 
0.824796 0.676762 -0.139414 
0.828415 0.679820 -0.141943 
0.820146 0.686006 -0.143687 
0.821762 0.681312 -0.143887 
0.817248 0.685705 -0.142796 
0.819668 0.680633 -0.142648 
0.825537 0.679860 -0.143555 
0.824171 0.678294 -0.143143 
0.816889 0.694734 -0.129105 
0.813676 0.694333 -0.131298 
0.814891 0.691346 -0.132448 
0.816815 0.686356 -0.133580 
0.812955 0.690819 -0.136130 
0.812976 0.690483 -0.139615 
0.815437 0.685361 -0.140473 
0.815000 0.685520 -0.137042 
0.817840 0.680892 -0.137707 
0.818261 0.680532 -0.140429 
0.819132 0.681523 -0.135052 
0.820984 0.677920 -0.139502 
0.822318 0.677536 -0.141426 
0.820084 0.678721 -0.137917 
0.821236 0.678740 -0.136565 
0.822854 0.677334 -0.137905 
0.784255 0.715343 -0.124522 
0.779784 0.678832 -0.050649 
0.778742 0.677088 -0.046182 
0.775933 0.667594 -0.061256 
0.778515 0.673621 -0.059538 
0.773543 0.661831 -0.058915 
0.773282 0.661410 -0.048266 
0.772849 0.660370 -0.053584 
0.779850 0.677377 -0.055180 
0.777142 0.673089 -0.042659 
0.774656 0.666030 -0.043353 
0.786647 0.666820 -0.042227 
0.784441 0.660393 -0.043762 
0.781919 0.655530 -0.049294 
0.780461 0.655987 -0.055032 
0.779623 0.658811 -0.059785 
0.787234 0.672908 -0.045268 
0.787206 0.675390 -0.049480 
0.785784 0.674592 -0.054548 
0.796137 0.667949 -0.044389 
0.799301 0.660280 -0.042421 
0.800098 0.647460 -0.049146 
0.804432 0.645318 -0.048789 
0.803224 0.645818 -0.053182 
0.797833 0.647594 -0.053230 
0.797445 0.649929 -0.048620 
0.793021 0.650660 -0.051008 
0.802877 0.650049 -0.044073 
0.799368 0.652669 -0.044994 
0.801879 0.655756 -0.042598 
0.805723 0.654922 -0.041708 
0.807300 0.647151 -0.043538 
0.811216 0.646291 -0.044963 
0.808347 0.644484 -0.048452 
0.808600 0.645704 -0.051584 
0.795572 0.654929 -0.044742 
0.787973 0.652208 -0.056755 
0.795576 0.649422 -0.057793 
-0.012905 0.741447 -0.063066 
-0.012525 0.751278 -0.058988 
0.802713 0.648255 -0.057182 
0.808653 0.648978 -0.054681 
0.802789 0.653013 -0.059657 
0.795190 0.653882 -0.061549 
0.807843 0.653423 -0.056526 
0.803501 0.657584 -0.059609 
0.796359 0.659933 -0.062044 
0.785991 0.663061 -0.062226 
0.785647 0.656540 -0.061210 
0.807124 0.656333 -0.057354 
0.813391 0.648211 -0.048023 
0.812729 0.652007 -0.050950 
0.805954 0.659645 -0.042706 
0.810865 0.657132 -0.043035 
0.809691 0.652580 -0.041600 
0.804820 0.664404 -0.044862 
0.810661 0.660834 -0.045930 
0.812457 0.650110 -0.042594 
0.813864 0.653177 -0.044534 
0.780898 0.664749 -0.061670 
0.783491 0.670810 -0.059309 
0.788575 0.669080 -0.059080 
0.798329 0.665392 -0.058249 
0.792067 0.672413 -0.053910 
0.794664 0.672087 -0.048065 
0.803539 0.667485 -0.048549 
0.801099 0.668072 -0.053483 
0.807117 0.663535 -0.053091 
0.809270 0.663143 -0.049583 
0.805146 0.661325 -0.056611 
0.811531 0.659107 -0.050956 
0.813432 0.656577 -0.047867 
0.809464 0.660344 -0.052941 
0.808620 0.658372 -0.054945 
0.810820 0.655646 -0.053380 
0.776639 0.710325 -0.119445 
0.778809 0.708056 -0.114067 
0.771908 0.708137 -0.113970 
0.763587 0.706623 -0.114227 
0.754704 0.709059 -0.118959 
0.764744 0.705739 -0.107577 
0.773414 0.707243 -0.107694 
0.782858 0.708163 -0.107392 
0.758242 0.705001 -0.101467 
0.022316 0.714897 0.071756 
0.023778 0.699960 0.077099 
0.283639 0.715971 -0.015859 
0.281126 0.730860 -0.015744 
0.277638 0.759905 -0.051933 
0.272484 0.759021 -0.069795 
0.061391 0.430096 0.067289 
0.089613 0.495171 -0.078810 
0.093656 0.515980 -0.080685 
0.022818 0.515953 -0.090110 
0.040721 0.512352 -0.092712 
0.125776 0.464862 0.002027 
0.129259 0.484078 0.004367 
0.092113 0.450846 0.045810 
0.097051 0.470558 0.050029 
0.116212 0.440913 0.017322 
0.056981 0.464155 -0.088075 
0.073057 0.461051 -0.084749 
0.072415 0.481109 -0.083968 
0.056585 0.485648 -0.088907 
0.005917 0.517932 -0.082582 
0.005474 0.494638 -0.081718 
0.136104 0.509209 -0.013341 
0.133198 0.514090 -0.034263 
0.113714 0.526314 -0.069003 
0.099321 0.534102 -0.080940 
0.082990 0.543226 -0.088300 
0.064902 0.552203 -0.092791 
0.088164 0.489446 0.066928 
0.074378 0.508982 0.079248 
0.132265 0.504533 0.007381 
0.036627 0.487457 0.089752 
0.049251 0.581418 -0.097114 
0.026398 0.585684 -0.095844 
0.125542 0.519688 -0.053091 
0.040775 0.660369 0.088782 
0.057169 0.663975 0.085716 
0.057279 0.648258 0.091248 
0.041114 0.643939 0.093361 
0.072756 0.650598 0.087843 
0.087458 0.652286 0.083522 
0.100985 0.653446 0.078493 
0.132102 0.652454 0.059734 
0.123286 0.653564 0.066504 
0.144183 0.645563 0.043169 
0.139180 0.650196 0.052090 
0.145773 0.636993 0.032048 
0.143891 0.626919 0.019496 
0.147357 0.630255 0.002168 
0.144087 0.617105 0.006844 
0.139960 0.613709 0.025253 
0.140838 0.623484 0.036657 
0.139806 0.631146 0.047571 
0.031507 0.574954 0.095621 
0.028735 0.599805 0.097585 
0.020303 0.729497 0.067680 
0.500203 0.698779 -0.109789 
0.632971 0.724963 -0.058023 
0.002306 0.754597 -0.062584 
0.017704 0.759476 -0.068371 
0.073767 0.775471 -0.072077 
0.090417 0.787688 -0.058837 
0.053355 0.765266 -0.079137 
0.034450 0.756815 -0.078959 
0.125488 0.520261 0.029643 
0.018976 0.727632 -0.082884 
0.035435 0.746623 -0.084995 
0.055836 0.755611 -0.085777 
0.078403 0.766334 -0.080017 
0.101687 0.780346 -0.067709 
0.118123 0.780845 -0.063936 
0.137274 0.765887 -0.071241 
0.155132 0.772472 -0.068042 
0.158934 0.785898 -0.054514 
0.149719 0.783181 -0.056062 
0.146215 0.767785 -0.068517 
0.238225 0.762764 -0.071717 
0.262160 0.745095 -0.084782 
0.253162 0.755814 -0.077806 
0.266907 0.731340 -0.088633 
0.268129 0.721930 -0.089540 
0.264012 0.712544 -0.089213 
0.253754 0.704022 -0.086973 
0.215345 0.684943 -0.072735 
0.198508 0.677164 -0.067083 
0.161020 0.647273 -0.073332 
0.152282 0.640443 -0.076775 
0.131355 0.614403 -0.085040 
0.120040 0.602965 -0.087201 
-0.011115 0.787056 -0.040967 
0.109249 0.589935 -0.089683 
-0.012426 0.605152 -0.085333 
-0.013004 0.622715 -0.087493 
-0.010224 0.541807 -0.075406 
-0.010950 0.563049 -0.080084 
0.086677 0.369296 -0.104346 
0.081737 0.385567 -0.096873 
0.064623 0.384457 -0.102255 
-0.014236 0.398547 -0.091263 
-0.012814 0.419138 -0.082873 
-0.010815 0.470490 -0.073439 
-0.010390 0.495226 -0.072841 
0.068923 0.367383 -0.111478 
0.025210 0.420437 -0.092145 
-0.013486 0.652560 -0.086498 
-0.013368 0.666248 -0.083230 
-0.013624 0.681192 -0.081155 
0.006567 0.419958 -0.089096 
0.125368 0.383514 -0.056251 
0.131981 0.379631 -0.035819 
0.098807 0.386422 -0.087464 
0.113942 0.385535 -0.073754 
0.133017 0.373940 -0.015630 
0.088253 0.343862 0.042282 
0.072128 0.339243 0.051799 
0.041322 0.334099 0.066409 
0.026886 0.332478 0.071479 
0.128783 0.366201 0.002903 
0.056245 0.336252 0.059933 
0.118740 0.357608 0.018297 
0.104172 0.349963 0.031254 
0.043002 0.420989 -0.093792 
0.045178 0.400233 -0.097702 
0.005731 0.770784 0.067741 
0.004690 0.763630 0.062963 
0.062348 0.401344 -0.097483 
0.039745 0.646936 -0.105206 
0.021064 0.643817 -0.099678 
0.059132 0.650820 -0.109356 
0.074391 0.671207 -0.110306 
0.078603 0.655784 -0.109721 
0.096674 0.662096 -0.107435 
0.006660 0.778121 0.072369 
0.007133 0.713183 0.073661 
0.008285 0.698116 0.079819 
0.092730 0.677205 -0.107643 
0.013526 0.596203 0.096541 
0.014098 0.571468 0.095121 
0.006148 0.727617 0.068924 
0.015286 0.547116 0.095325 
0.125444 0.688616 -0.095291 
0.128196 0.675625 -0.095164 
0.140527 0.680673 -0.089740 
0.138182 0.692989 -0.090745 
0.162678 0.688936 -0.082317 
0.151784 0.685010 -0.085961 
0.173978 0.694073 -0.078574 
0.188483 0.699481 -0.079916 
0.182654 0.722296 -0.086378 
0.169714 0.717270 -0.085602 
0.124448 0.702506 -0.094936 
0.108507 0.698266 -0.100293 
0.019467 0.672868 -0.095477 
0.003007 0.668762 -0.088358 
0.147955 0.611363 -0.007242 
0.152719 0.606984 -0.022552 
0.155252 0.605395 -0.037310 
0.153745 0.607365 -0.050198 
0.150869 0.611025 -0.062744 
0.145369 0.616760 -0.073293 
0.145191 0.632848 -0.079785 
0.138751 0.624247 -0.082328 
-0.017727 0.212989 -0.122205 
0.140555 0.641313 -0.085748 
0.131902 0.633175 -0.089902 
0.118894 0.656019 -0.099891 
0.125286 0.643921 -0.095794 
0.113434 0.669091 -0.102071 
0.109961 0.683116 -0.102246 
0.090974 0.693078 -0.106394 
0.072656 0.687273 -0.108889 
0.054194 0.713437 -0.101190 
0.054141 0.698015 -0.104778 
0.054301 0.682046 -0.107630 
0.055073 0.666710 -0.109083 
0.057155 0.797233 -0.045946 
0.040005 0.791247 -0.051588 
0.244735 0.708788 -0.087140 
0.250520 0.714987 -0.088313 
-0.021522 0.257306 -0.141085 
-0.021800 0.279970 -0.141643 
0.239709 0.715533 -0.087457 
0.238536 0.711185 -0.086962 
0.252415 0.722268 -0.088662 
0.250943 0.732046 -0.088570 
0.237901 0.730553 -0.087670 
0.239760 0.721091 -0.087848 
0.246861 0.743293 -0.085875 
0.234539 0.740718 -0.086024 
0.240025 0.752573 -0.081267 
0.230527 0.758547 -0.077178 
0.225984 0.754881 -0.079842 
0.229930 0.749358 -0.082975 
0.191750 0.751799 -0.082710 
0.204700 0.753722 -0.081112 
0.217073 0.754589 -0.079940 
0.203365 0.706173 -0.082953 
0.216326 0.713785 -0.085594 
0.227936 0.719267 -0.087039 
0.225784 0.728026 -0.087137 
0.213733 0.722452 -0.086504 
-0.020655 0.238067 -0.136157 
0.200307 0.715404 -0.085274 
0.036815 0.662638 -0.104659 
0.019972 0.657629 -0.097761 
0.010786 0.223852 0.065797 
0.009832 0.207534 0.062590 
0.159590 0.700187 -0.083984 
0.008541 0.193068 0.055396 
0.007203 0.180021 0.045611 
0.149664 0.696844 -0.087365 
0.170853 0.704251 -0.082257 
0.185415 0.709643 -0.083726 
0.158549 0.713217 -0.086098 
0.148133 0.709835 -0.088020 
0.137044 0.706386 -0.090664 
0.036384 0.677730 -0.102705 
0.003150 0.654004 -0.091335 
-0.019726 0.325478 -0.128778 
-0.018134 0.346434 -0.118778 
0.012092 0.312192 0.070832 
0.007686 0.785395 0.076817 
-0.007900 0.838902 -0.010825 
0.003913 0.754602 0.057868 
0.004228 0.744850 0.058559 
-0.004319 0.170408 -0.043693 
0.005271 0.736227 0.064397 
-0.005339 0.170394 -0.052009 
-0.009996 0.518946 -0.072696 
0.170566 0.754483 0.020602 
0.169120 0.780026 0.008377 
0.167881 0.794852 -0.012221 
0.163915 0.795682 -0.035257 
0.419908 0.671215 -0.068580 
0.005463 0.470205 -0.081576 
0.006031 0.445280 -0.083613 
0.023493 0.444868 -0.088242 
0.006373 0.585614 -0.089488 
0.003176 0.641341 -0.094201 
0.109138 0.622849 0.082598 
0.099025 0.622691 0.088130 
0.099758 0.637965 0.084074 
0.110854 0.638200 0.078414 
0.124950 0.622862 0.069090 
0.117729 0.622961 0.076062 
0.120379 0.638059 0.071882 
0.128494 0.637329 0.064784 
0.130818 0.621039 0.061209 
0.135097 0.635342 0.056853 
0.115543 0.607328 0.078621 
0.107732 0.607051 0.085090 
